-0.212713 4.639630 1.529920
-4.446230 12.889900 2.648120
-1.213370 5.029890 1.545290
3.990820 9.330950 2.318360
2.111090 6.945700 1.328500
-0.720851 6.700210 1.616310
-0.052130 2.055000 -0.243225
-1.271560 2.790190 1.136170
-1.654180 5.658010 1.529300
-0.293910 5.579030 1.631090
-1.069030 6.033910 1.586840
-3.662950 11.108300 0.281786
-1.483800 5.642130 1.525000
0.193778 4.523170 1.594800
0.798058 4.406460 1.553650
1.403520 3.220670 1.311460
-0.023646 2.016380 -0.308661
0.241662 1.388240 -0.049994
-3.876610 12.618200 -0.885812
-3.510810 11.156100 -0.325624
2.406880 6.892250 1.269630
-3.018100 11.802800 2.257510
3.126620 7.450440 -1.140490
-1.238390 4.984270 1.568550
-3.147260 8.375930 1.602060
1.022320 5.872740 1.630380
-0.299641 1.918940 0.874513
0.317847 4.527680 1.561770
-0.947217 5.142030 1.465350
-0.069753 5.948090 1.783100
-1.413690 6.881230 1.709700
-3.467660 12.829500 0.062977
-0.232028 1.631590 -0.081047
-3.366290 11.229300 -0.404401
-0.771649 1.971550 -0.233348
-0.766723 4.008610 1.321840
0.428407 6.102590 1.739090
-3.503850 12.963300 -0.555366
-0.129276 3.313310 1.322930
2.431520 7.280240 1.547460
0.219971 2.103930 -0.249016
-3.227430 12.989800 -0.822939
-1.032480 2.307130 -0.337088
2.359670 6.908020 1.272530
-10.460100 23.807699 2.233460
-3.514930 12.661000 0.062150
-1.434070 6.746790 1.725220
-2.627870 6.714170 1.427140
-0.797066 5.604860 1.474000
-1.623950 7.904700 -1.210030
-2.417400 12.638800 0.234401
1.164970 3.195300 1.352210
0.480012 1.316590 -0.155829
-1.324470 5.490440 1.524250
-1.997510 4.905460 1.325890
-1.086900 4.644290 1.323510
-1.763560 3.869770 1.276060
-0.811967 5.709640 1.543250
-0.025308 0.142843 -0.038149
-1.218250 5.731400 1.424020
-6.070570 13.320600 2.831390
-5.724080 14.624900 3.004550
-1.592240 5.182710 1.553660
-5.926040 13.487900 2.294930
-0.580554 2.926990 1.262260
-2.775840 11.172200 -0.937543
-3.653560 12.496700 0.061344
-2.967280 11.604100 -0.735151
1.455620 3.468620 1.330390
-4.812430 12.807500 2.722320
-2.394100 12.996500 1.667770
1.208330 5.769810 1.644260
-1.453610 6.407810 1.545770
-2.772120 11.845200 2.349430
1.084590 5.008490 1.501430
0.455306 1.044790 0.026503
-2.997140 11.088600 0.281289
-1.337570 3.793610 1.308560
-3.547180 13.123700 -0.831420
-3.422940 12.011300 0.714920
0.584468 1.537610 -0.129032
-2.257520 6.266200 1.556900
-2.344870 8.675430 1.720730
-0.317022 1.275950 0.509456
-0.305113 5.791690 1.650490
2.277310 6.976450 1.936790
-2.533460 11.168000 0.435740
0.840760 3.641730 1.396790
-3.040190 11.889200 1.197180
-2.157660 11.280800 -0.329264
-0.093671 2.400780 1.094100
6.217690 14.006300 2.580100
-2.178820 4.959080 1.340380
-2.522710 11.482900 -0.884821
0.232692 0.505473 -0.224391
-1.584460 6.196300 1.629540
0.803968 5.252040 1.496700
-0.466261 1.481610 0.556716
-0.432518 1.151080 0.029200
-2.610630 11.155100 0.282974
-1.727820 5.009080 1.317320
0.154359 2.003210 -0.058470
-3.072110 11.066000 0.356220
-2.130740 12.522900 0.659722
-2.927560 11.448700 -0.882189
-0.807931 5.973130 1.614470
6.224120 14.020700 2.484070
0.305342 0.771451 0.131260
-2.094000 6.350240 1.440550
0.405618 8.165660 1.104490
-4.291020 13.967200 2.968810
-2.593100 12.199600 1.565510
-0.750751 5.550400 1.581730
-0.049277 1.942550 -0.163014
2.354150 6.891840 1.366970
-1.989160 6.320840 1.570470
0.435664 5.191580 1.633790
1.028640 2.317150 -0.274253
-1.557190 6.455150 1.510700
-0.975787 2.141170 -0.283078
-2.943770 11.512100 -0.808162
-2.386060 7.766550 1.595570
-2.482080 6.341670 1.575650
0.598271 1.276630 -0.019846
-5.610000 13.512500 2.872160
-0.263071 2.445210 1.114340
0.898392 4.601720 1.587310
-1.115430 6.837220 1.600110
-2.389830 12.973300 1.844930
-0.634417 1.392100 -0.021641
2.993240 9.386130 2.400130
-5.330830 13.620200 2.895060
-0.232096 3.170010 1.341510
0.169493 1.218060 0.022590
-2.092390 11.810100 0.380173
-4.523750 14.039800 2.884360
4.451700 10.028100 2.346880
-1.519900 3.883310 1.339500
1.655880 3.533420 1.382960
-3.585470 12.915100 0.415745
-1.198460 6.505910 1.616450
4.768580 10.547400 2.392690
-5.262200 13.719700 2.527320
-1.969540 7.927010 1.684940
2.564490 10.455500 2.446900
-2.575010 6.713600 1.522980
-4.989040 12.746900 2.528290
-0.515426 4.016570 1.416180
0.993104 2.459950 1.121060
-3.292880 11.861200 0.705982
-3.608590 12.662800 -0.283213
-2.446570 7.963530 1.636040
-1.575370 6.731480 1.527040
-1.730600 6.402770 1.544560
4.332540 9.759690 2.424880
-1.192350 4.798980 1.474350
1.228970 6.295000 1.793920
-3.486440 11.348300 0.442775
-0.525796 6.566400 1.726870
-3.759860 12.860300 -0.550953
-0.502275 4.668570 1.469200
-0.729898 4.892990 1.466800
-0.867498 6.100130 1.693510
0.896380 3.266810 1.304360
-3.522960 12.690000 -0.890846
-2.598820 13.102500 1.954530
-1.344690 2.950650 1.178120
-0.372848 7.077440 1.707310
-1.495890 4.990010 1.422030
-2.704470 11.211000 -0.633541
-2.631130 11.242700 0.285196
0.439482 1.008480 -0.299026
0.294946 3.248760 1.374840
-2.178000 12.800700 -0.373626
0.696983 2.473900 -0.224598
0.349125 2.640740 -0.441167
-3.749710 9.391270 1.335530
-1.667260 6.710390 1.522250
3.939900 11.039700 2.425350
-5.662070 13.637900 2.801780
0.116325 3.230100 1.289700
0.280577 5.648420 1.609660
-5.787710 13.420800 2.948450
0.417485 5.947000 1.738670
-0.466237 4.969880 1.526860
1.607320 3.904480 1.467110
-0.870963 3.056270 1.342800
3.089580 9.250530 2.298380
-0.734477 2.227370 -0.340960
-2.235180 11.269100 -0.175185
-0.868666 3.397070 1.329590
0.801714 4.426640 1.493220
-0.718452 2.396630 1.092210
0.990144 2.230450 -0.310368
0.755000 6.026660 1.673110
-1.025780 3.259540 1.224780
-3.034290 7.451560 1.530860
-3.072670 11.068000 0.280764
1.489270 4.899840 1.615720
2.647570 10.191500 2.532180
-0.630670 3.423630 1.394110
-1.461060 4.430790 1.361240
-3.185200 11.473300 -0.884081
3.231060 7.414330 -1.083290
-4.189660 13.976000 3.070420
-0.715614 2.447710 1.055570
-1.979520 6.770790 1.584570
-0.925351 3.011990 1.250500
0.740314 3.018280 1.277300
0.362072 4.698850 1.514010
-2.198420 11.493900 -0.806879
-5.162340 13.738700 2.627790
-2.433720 12.270100 1.235530
-0.565002 3.189020 1.273300
-2.487580 5.458490 1.356210
0.005280 0.605025 -0.263661
3.623780 10.154000 2.376330
0.094669 0.591450 -0.277173
-2.025340 5.871610 1.501430
1.281670 4.549210 1.569200
-1.986350 5.178830 1.437740
3.680980 9.683880 2.336070
-2.929060 12.911800 -0.729655
-2.563960 5.626100 1.357200
-1.754590 7.986550 1.640760
-3.511700 11.158900 -0.859856
-2.009080 11.339800 0.287660
-2.787580 11.911200 1.281480
-3.025240 11.830700 2.096060
-0.796040 1.954900 -0.285625
1.441550 3.871680 1.454790
-2.156450 6.852430 1.554480
-1.555370 9.533940 -0.018200
0.375308 1.444700 -0.629581
-5.993010 13.391700 2.656180
-3.254760 12.728300 0.236063
-1.140000 6.987850 1.736200
-0.797595 6.569940 1.727810
-0.129032 0.758354 0.129032
-0.153284 2.309710 0.996063
-0.318771 0.767805 -0.256438
-0.807927 1.984090 -0.276088
1.548780 4.074520 1.531000
-0.448264 2.108920 0.909470
-2.576750 12.991200 -0.645320
-2.107530 4.709380 1.376840
1.197060 5.527850 1.494120
0.380043 24.447001 -0.046668
-1.647520 8.019430 1.590620
-1.694590 5.384800 1.534540
2.833160 10.325300 2.565420
-1.035040 5.038150 1.435750
-0.364576 0.950529 0.063082
-0.035756 1.409530 0.006919
-2.845760 11.796700 2.007180
0.533515 2.547540 1.160980
-3.648240 12.478500 -0.705168
3.858650 9.021920 2.307000
-2.223920 12.552400 0.232800
-0.962236 6.766310 1.730210
-2.196440 5.190210 1.327190
-0.220856 3.327890 1.355120
0.098328 4.396380 1.416550
0.774678 1.845990 0.811052
0.617503 5.217250 1.486790
-1.048790 7.030720 1.746850
-0.077841 6.637740 1.649210
-3.445610 12.747900 -0.807613
0.499919 2.308560 -0.193728
3.408700 11.790400 2.422230
-1.880950 6.433650 1.505670
-4.726080 12.843000 2.547340
-2.259660 12.754100 -0.982777
-1.538860 4.775980 1.325900
0.291882 4.157810 1.530030
-0.790856 2.061930 0.939676
-3.381530 7.841230 1.499780
0.857424 2.043160 0.537324
-3.230580 11.336300 -0.873528
0.419206 0.961955 0.037533
-0.831701 1.892980 0.511652
-0.334142 3.561810 1.310710
-0.322931 5.425550 1.506230
-1.649170 4.781070 1.292270
0.597266 1.917970 -0.069072
-1.353750 2.970530 1.116180
-2.228120 12.576100 -0.452903
-0.189678 4.861430 1.529890
0.108370 4.845330 1.488590
0.877138 4.335470 1.528620
0.255139 5.955450 1.741140
2.873390 9.938800 2.397560
-2.152890 11.255800 0.055252
-5.223590 13.619000 3.089480
-2.115070 6.720920 1.621310
0.371464 3.803440 1.341030
0.074245 2.543680 -0.424953
0.507361 2.422660 -0.472975
-3.195430 8.683470 1.599590
0.843805 5.050840 1.514120
-2.261760 12.766000 -0.808760
-2.212960 4.944970 1.336570
-5.740780 13.565500 2.308140
0.964077 5.538180 1.619150
-1.563790 4.249540 1.401290
2.244020 7.036740 1.748340
2.314060 10.344600 2.495450
-1.130910 3.968430 1.278660
0.275737 1.004910 0.128955
-1.187850 4.062960 1.339760
-2.549610 11.605300 -0.814705
-0.538502 1.841910 0.692098
-2.271360 12.820200 0.062932
-0.263291 2.168780 -0.152250
1.619590 4.442260 1.464840
-2.886190 8.752640 1.798150
-0.539732 3.795320 1.396640
5.240440 12.730000 2.255390
-1.526300 4.328890 1.297700
-4.508960 13.993900 2.479320
-0.216914 2.154180 0.964034
-3.464760 7.602730 1.507970
0.811759 5.833670 1.662450
5.396690 12.618000 2.502730
0.103183 6.637420 1.649130
0.507382 2.422760 -0.270017
-1.331240 6.960060 1.578890
-0.177940 7.014540 1.742830
-0.951889 7.037440 1.646970
0.175730 0.970288 -0.088090
1.210090 4.185610 1.443770
-1.460340 4.141810 1.334520
-2.269030 5.797320 1.440400
-2.663790 12.966200 1.484480
-3.805750 14.080300 3.093340
0.236999 1.094430 -0.213665
-2.800520 11.609200 -0.814977
-2.770190 13.032700 1.762820
0.827415 1.863870 -0.054403
-2.702880 12.716100 -0.718592
-2.112450 6.712580 1.522750
-0.472412 7.118380 1.768630
-2.126030 12.495200 -0.620683
3.469690 10.157600 2.450350
-1.785220 4.851280 1.454300
-0.767454 5.980560 1.485930
0.136781 3.192740 1.300090
1.482740 4.245930 1.497050
0.087618 5.636180 1.564710
4.654940 11.530400 2.533150
-4.659280 13.812400 3.133340
0.371449 1.974100 -0.071093
-0.026862 2.290650 0.896544
-2.092790 11.812300 0.299646
-0.456205 6.874160 1.757790
-3.694570 9.253170 1.315890
-2.624720 5.759420 1.389360
-2.593740 11.433700 0.368059
4.576690 9.941860 2.470150
-2.197010 12.400600 0.399182
1.064720 3.503020 1.343590
3.692710 10.347100 2.421530
-2.442220 12.768500 -0.721556
-3.565160 7.966520 1.636650
-2.183930 12.835500 -0.024502
-3.546500 12.774700 0.236923
-0.297887 1.996930 -0.291766
-4.619740 14.009800 2.878190
-0.251443 4.772920 1.502030
0.319119 1.993720 -0.291296
-0.458498 6.262260 1.601320
4.513150 11.633700 2.307490
-5.657450 13.626700 2.702800
-3.546670 12.775300 -0.198600
-3.508030 11.998900 0.468163
-0.553129 1.940970 -0.297119
0.349606 8.160490 1.160500
-0.100039 0.824036 0.128672
-1.144750 3.046570 1.144750
0.673831 1.437860 -0.081254
0.492957 3.079790 1.328160
-3.964220 12.596900 -0.798046
0.612538 5.175310 1.628670
-2.810790 6.167730 1.443430
0.657618 2.848450 1.251500
-3.372390 12.823400 -0.900217
-1.131430 4.302240 1.353910
0.471445 3.983220 1.435030
-0.039946 0.225465 -0.071901
-1.316080 6.635300 1.505220
0.010070 0.027619 -0.005981
-1.741130 4.275840 1.313630
-0.053022 1.647120 -0.081818
-0.566950 4.670070 1.539960
2.380940 10.313000 2.562350
-0.481666 3.228930 1.289230
-3.488790 12.566900 -0.452570
-2.965630 11.936100 0.873913
3.435520 9.626470 2.531630
-3.474920 12.516900 -0.878698
-3.363200 12.788500 -0.985424
-3.012470 11.780800 1.105190
0.731653 3.747650 1.437420
0.127481 1.404170 -0.012254
-0.888254 5.954550 1.522640
-0.451445 0.990606 -0.338376
-0.677505 6.728310 1.769450
-1.607970 6.870790 1.707110
0.332369 3.403140 1.305280
-10.291600 23.864599 2.403040
-3.341740 11.430200 -0.177689
3.287180 9.413040 2.544240
-2.142790 12.593700 -0.367586
1.840110 4.384820 1.479120
-2.679050 7.942000 1.688130
4.230310 9.707330 2.271810
-0.624523 1.421440 0.342898
-0.174822 6.891630 1.612850
-2.028480 6.013400 1.450630
-3.573250 7.984600 1.527210
-5.561580 13.658000 2.903100
-5.815290 13.484700 2.579210
-3.279780 11.509000 -0.886831
-2.242960 12.176000 0.475072
-1.159640 4.177100 1.314530
0.010149 5.316250 1.593690
-0.559615 2.015770 -0.183006
0.419578 5.445130 1.632320
0.870754 4.627700 1.525990
-2.387200 12.480900 0.572210
5.495210 12.609900 2.322880
3.286770 10.306600 2.486280
-0.393155 2.517820 -0.403008
-2.008700 11.337700 0.364966
-1.211280 3.849000 1.269210
2.941880 10.175700 2.528250
-2.848820 11.809400 1.926590
6.409170 13.922500 2.564680
4.178230 9.412080 2.338520
-0.203614 1.303980 0.024184
4.840990 10.516000 2.385560
1.151930 5.149490 1.620540
-2.851040 6.256030 1.419180
0.719733 2.427350 -0.304090
0.720540 4.931590 1.551970
-2.362020 11.497300 -0.728385
3.592700 10.287900 2.407680
4.513660 9.983590 2.552900
-2.815210 6.177420 1.534840
0.338300 3.235680 1.317580
-3.088970 7.440200 1.475730
0.723438 1.984260 -0.276111
1.070310 4.238570 1.494450
1.250400 6.904050 1.615750
-2.211190 11.148200 -0.325393
-3.623920 7.951970 1.577240
-3.633510 12.750300 0.236470
-5.461030 13.677300 2.327160
0.591575 2.411870 1.059680
-0.040839 3.482450 1.390460
-3.426900 12.025200 0.387100
0.866395 4.000900 1.380060
-0.592312 7.397080 1.731140
-5.821610 13.499400 2.486730
-2.233830 12.608400 -0.368013
-2.688640 13.087200 2.135040
-0.491596 6.714310 1.765770
-2.041110 5.917320 1.556180
-1.698840 4.171980 1.375710
-4.907300 12.794400 2.447170
-10.441500 23.765200 2.720830
-2.058790 11.176300 0.359771
2.347680 7.029200 1.494100
1.153060 4.994440 1.497220
-2.449850 6.259310 1.419930
-0.575115 1.871980 0.837746
-1.764850 8.302980 1.764850
-1.359730 9.561430 -0.213849
0.109192 2.198190 -0.290616
-3.106690 11.494000 0.291571
-1.387930 6.755840 1.727540
-2.712550 6.409790 1.592570
-2.941150 6.694170 1.375260
-0.426988 7.173800 1.678890
-2.930070 12.916300 -0.641599
-0.031332 6.382890 1.678610
3.613790 11.332000 2.328070
-0.240370 5.242890 1.610730
-0.493974 1.569670 -0.120952
-2.271120 12.818800 -0.199276
3.279530 9.819280 2.368730
-3.481190 12.539500 0.403654
-0.367278 1.195480 0.153410
5.661520 12.522500 2.395160
-3.459750 12.800200 -0.111706
-2.159460 6.861970 1.507520
0.883942 3.402630 1.305080
-1.286340 4.399840 1.318970
-0.662251 5.455080 1.514430
0.450495 4.042130 1.456250
-0.858587 5.262870 1.538660
-3.263330 11.754700 2.165350
0.305811 2.441090 1.112470
4.172230 9.398560 2.267240
-3.397540 13.286700 -0.841747
0.472080 5.625530 1.644690
1.045770 2.313090 -0.241840
0.620071 5.930700 1.733910
-0.804637 1.798000 -0.200387
-0.454408 3.541080 1.330560
0.858726 2.046260 0.523251
-1.179560 3.577140 1.316350
-2.066350 12.666100 0.407729
-6.098000 13.380800 2.464900
1.184780 4.317870 1.555590
-0.215568 0.950265 -0.391186
-2.213390 6.712320 1.522690
-2.982490 11.340800 0.287686
0.186882 6.402690 1.590810
-1.834110 6.436030 1.552580
0.321873 6.479770 1.751410
-5.098750 13.855700 2.650160
-5.530520 13.581800 2.693880
1.202660 3.298690 1.317090
-5.082130 12.728400 2.434540
4.093730 10.140300 2.373140
-10.775200 23.643900 3.034100
-2.659560 12.945600 1.661240
-0.505080 1.975200 -0.071133
-4.450140 12.901300 2.742250
-2.369460 11.147500 0.282780
-0.657729 5.125510 1.460640
-1.982540 11.190000 0.360214
-0.005301 1.079910 0.012664
-0.500237 8.404470 1.489020
2.460780 10.658800 2.494480
-0.157369 4.033340 1.453090
-3.435570 11.460400 0.368919
-6.012320 13.434800 2.380260
-3.068560 12.720300 -0.805867
3.233710 7.420410 -1.032560
-0.527564 1.270710 -0.106635
-3.799050 12.672900 -0.889651
-3.066310 11.344600 0.442631
3.560390 10.423200 2.289890
-0.184000 7.253430 1.645440
0.209119 5.806760 1.612060
-0.427471 2.512360 -0.402134
-0.177787 1.191830 -0.538834
-3.274250 11.199300 -0.862969
3.665690 10.975500 2.411230
0.439885 5.241880 1.571390
-0.292206 2.552280 1.163140
-3.635740 12.128200 -0.851408
-3.506010 11.992000 0.631755
-3.474160 13.210400 -0.746528
0.761010 3.296300 1.316130
3.662770 9.254050 2.366350
0.349936 8.168190 1.104840
-1.000890 3.257870 1.249560
-1.009680 7.099930 1.610620
0.679497 1.502950 -0.043868
-10.278900 23.834999 2.728830
6.320060 13.979100 2.476680
-0.920630 5.410780 1.422960
0.186512 4.353550 1.535000
0.381723 3.047040 1.363610
6.139930 14.089300 2.298540
-2.223440 5.917320 1.556180
0.048119 1.648600 -0.048119
-1.550490 5.584980 1.550490
-0.030791 6.272690 1.741410
-2.772270 11.845800 2.182120
4.119190 9.452330 2.280210
-0.822466 6.409260 1.732350
-2.292670 11.986600 0.385857
1.834760 7.062710 1.450970
0.840629 5.753510 1.597280
0.001387 0.726346 0.284287
-1.186670 5.401490 1.499550
-0.849888 3.420630 1.365780
-3.438050 11.468700 -0.805114
2.343600 7.348990 1.509780
-0.906681 7.065520 1.401410
-3.359140 11.205500 0.207820
-3.139990 13.016400 -0.735565
-0.875499 7.211650 1.739690
-2.775510 11.859600 2.101180
-1.817930 3.989080 1.255360
0.198297 2.030370 0.875598
0.900346 1.921220 -0.187636
-2.005040 5.336100 1.442290
-0.614364 2.708240 1.211980
-0.765324 2.079740 -0.131757
-1.606600 5.229420 1.490260
-2.594230 11.435900 0.290096
1.181630 4.963590 1.674350
0.190618 2.271500 0.924959
-0.127957 0.997133 -0.303071
-3.528190 13.053400 -0.470092
-1.911340 5.541120 1.538310
0.036541 4.187200 1.476340
-3.789710 12.962400 -0.821205
-0.025566 5.208130 1.639000
3.491900 9.378480 2.262400
-0.926909 6.852750 1.653110
-2.283660 12.397000 -0.785382
2.886050 9.733410 2.559750
-0.957279 5.196650 1.596530
-0.084780 7.229490 -0.013801
-2.556830 6.532640 1.481930
-2.528630 5.650340 1.322350
3.983420 11.661600 2.478750
0.382705 1.072350 0.056493
-2.516250 13.155600 1.688180
-0.350855 2.352010 0.920560
0.515966 6.148500 1.661870
-3.588890 12.593700 -0.625573
1.051660 4.048250 1.489720
0.647439 2.239440 -0.203312
0.004898 2.566010 -0.268283
-0.410988 2.319730 -0.258534
-1.318130 6.416090 1.501560
-3.126460 11.567100 -0.653663
-0.163045 6.427360 1.737240
0.282905 1.625160 -0.036348
3.964760 8.931200 2.348790
-0.762201 3.067710 1.224860
0.010595 5.550080 1.540800
-1.366080 5.054130 1.440300
-0.844431 1.886920 -0.106631
-2.451460 12.816800 0.150302
-4.819570 12.826500 2.453310
-2.211070 5.224790 1.298150
3.218680 10.589800 2.326500
4.032210 8.918670 2.280590
-0.216696 2.959680 1.300360
0.343508 6.078660 1.732270
0.680332 4.656400 1.535450
-2.685480 13.071800 2.041150
-3.659830 12.518200 -0.450817
1.403190 5.113840 1.533010
-2.172640 12.769200 -0.983935
-0.528141 5.244980 1.533430
0.484284 3.480290 1.472820
-1.423150 3.180100 1.121250
-2.062410 6.553590 1.580940
-0.063295 2.495160 -0.347204
-5.647770 13.603400 2.314590
3.064090 9.608290 2.456940
-2.707480 13.178900 1.691180
0.126514 1.641850 -0.104016
-3.443800 11.209500 0.284354
-2.640500 8.808240 1.747070
0.298472 0.711232 0.116031
-0.342971 2.015730 -0.322642
-1.386870 6.312750 1.477370
-2.522650 5.961060 1.567680
0.252413 4.466650 1.472880
-1.894490 8.095080 1.720660
-5.636090 13.575300 2.500720
-1.672960 4.361780 1.340030
2.508100 7.027800 1.543960
-2.960050 6.614380 1.547960
-0.719536 4.410540 1.487790
-3.363890 7.656360 1.464420
2.845410 10.099600 2.291100
0.607800 1.369160 -0.077372
-2.059320 11.179200 -0.250030
0.017006 1.948660 -0.070177
-0.221633 6.885010 1.760570
-2.975140 11.312900 -0.871721
-2.056270 6.095790 1.603110
-2.672130 11.417900 0.289641
2.987540 10.604100 2.558060
-1.422050 8.026450 1.763350
0.964963 2.059100 0.938385
0.716427 3.807520 1.371730
-3.351350 11.463100 -0.804717
2.945780 9.934830 2.325050
-0.966046 4.397260 1.383810
0.553201 3.613870 1.357910
5.648740 12.494200 2.566830
1.964890 6.974270 1.936180
-0.838626 2.100370 0.888851
0.818899 3.152260 1.308730
-2.167470 6.573060 1.491100
-3.028730 11.844400 1.602080
-2.148830 12.128600 0.556058
-1.843050 8.124510 1.784900
0.376915 1.930630 0.817018
-3.510180 11.425500 -0.645663
-3.402630 11.350500 -0.099055
4.238130 10.099100 2.436230
0.084999 1.012890 -0.084999
0.900942 5.885530 1.764340
-2.684260 12.218300 1.230310
-1.403190 5.054390 1.515190
-0.948181 3.605440 1.243650
-1.043750 6.684350 1.757890
-2.859050 13.013900 1.760270
-2.057000 7.821690 1.774350
3.950520 9.236730 2.361920
-2.705010 6.391980 1.541950
0.075308 39.449902 -0.075308
0.282536 1.623040 -0.091719
1.194790 3.018650 1.253260
0.099936 6.428570 1.737570
-2.862720 11.867000 1.935990
2.772180 10.103100 2.364420
-0.100944 1.002480 -0.388899
3.204540 7.353490 -1.125650
-0.266619 5.815420 1.571840
-0.226618 0.998976 -0.230632
-2.426190 12.684700 -0.630094
0.383128 1.962450 -0.205180
-3.347410 11.746300 2.081100
-0.568625 2.429710 1.107280
-2.657270 12.934500 1.749530
-0.820635 5.501260 1.608360
-3.490620 8.094190 1.491040
-1.093190 5.321190 1.516410
2.039060 4.429420 1.494160
1.928010 7.860560 -1.039220
-2.073710 11.704600 -0.741519
-4.481820 13.909700 2.956600
-0.680678 3.841930 1.384130
-2.250850 5.990280 1.488340
-3.311480 12.591800 -0.024037
-3.050670 11.286700 -0.947149
-2.266720 6.159730 1.441560
-0.823331 3.873470 1.306620
-2.331020 6.910270 1.617210
-2.301920 6.673450 1.561790
-0.848048 6.985530 1.786270
-3.466660 12.825800 0.325355
1.301350 3.423590 1.339970
0.228669 2.187120 -0.304339
-2.611000 12.709200 -0.631313
-0.625507 2.036010 -0.017768
-1.505400 4.565260 1.300990
-1.570930 4.013690 1.293240
-3.674110 12.892700 0.327053
-5.528270 13.576200 2.885720
0.084922 5.462760 1.516560
1.005930 3.230290 1.315380
0.299552 5.300820 1.510600
-1.734510 5.645800 1.484770
-0.480335 2.607530 1.124500
-1.901130 5.635880 1.441150
-0.333621 1.883050 -0.170957
2.577400 9.921400 2.537000
-5.197810 13.833100 2.743740
-1.390220 6.767020 1.681330
-4.211330 14.048200 2.686990
-0.824279 6.093990 1.736640
-3.311370 12.591400 -0.109883
-1.507860 7.093920 1.660190
-1.250500 4.755000 1.355060
-10.772000 23.636999 2.543020
-0.800509 1.821990 0.670475
-1.504480 6.236620 1.549550
3.748260 9.860870 2.450030
-0.334974 5.047440 1.513110
-4.604550 13.963700 2.473960
-2.930210 11.793500 1.187550
-2.599260 13.104700 2.137910
-2.153380 12.656000 0.234721
2.592960 10.268500 2.403130
-3.366210 12.799900 -0.810912
-1.533130 5.379860 1.493550
-0.962917 5.227250 1.489640
3.211570 10.070700 2.356860
5.581510 12.573200 2.316120
0.615797 4.022780 1.449280
0.931058 2.059370 -0.300888
-2.297120 12.009900 0.550618
0.567319 6.248900 1.734810
0.046395 2.984450 1.335590
3.151300 7.368070 -1.179350
2.710190 9.619640 2.320570
3.759120 9.889450 2.314430
-2.534190 11.922400 1.118470
3.587580 9.064080 2.317780
2.138090 7.792170 -1.138490
0.620972 4.250110 1.531180
-0.430432 0.979679 0.146141
0.335137 2.293780 -0.319180
-1.011280 2.219060 1.011280
-3.368160 8.271480 1.523700
-2.937400 11.822500 2.261270
0.451042 2.817920 1.261070
3.407830 9.976540 2.478760
-2.858570 11.178900 0.512520
-0.198837 6.176870 1.624430
0.098354 1.172030 -0.529884
-10.454300 23.794500 2.395980
3.362340 9.222290 2.291360
1.079800 3.935280 1.417760
-2.202020 11.512700 0.449191
4.346990 9.275890 2.304680
3.064670 10.600400 2.480820
-2.135130 11.163000 -0.325825
-0.035844 1.932690 0.651947
-2.798910 8.297330 1.645740
2.823800 10.573200 2.474440
-2.776440 11.174600 0.359718
0.405235 8.157960 1.160140
-2.178350 5.147490 1.391310
-1.676330 6.746890 1.627570
3.607610 10.108700 2.584890
-1.904670 5.521780 1.371940
-0.661552 2.153330 0.911265
0.555202 4.431810 1.494970
3.836950 10.094200 2.435060
-3.379770 12.851500 -0.199784
-2.874920 12.673200 -0.802883
-1.126020 5.887130 1.505400
-4.700090 13.933300 2.961620
-1.946760 4.689030 1.336260
-0.151884 1.747020 0.781823
0.337875 3.721620 1.398400
2.581570 9.937450 2.469050
0.196521 2.012180 0.917005
0.085566 1.997290 -0.208822
3.025050 10.202200 2.314370
-2.502950 6.801660 1.542960
-1.369190 8.047070 1.710460
-0.479787 3.547120 1.305310
1.212980 5.253990 1.653430
0.563261 1.292520 0.015157
-0.809898 2.400930 1.094170
-10.285400 23.850300 2.565960
-2.263450 12.775500 -0.634607
-2.866720 11.883600 1.360540
-2.025210 5.503430 1.527850
-2.458280 11.189600 0.283850
3.084770 9.236160 2.361780
0.590686 3.139250 1.303330
3.356040 9.610210 2.318300
-0.658851 2.904340 1.276050
1.057710 5.621270 1.601920
-0.819859 2.376830 1.063670
0.055347 6.342180 1.714220
-5.316920 13.584600 3.081670
0.178426 0.881916 -0.019725
-3.345610 13.083600 -0.828882
0.489099 4.678010 1.542580
-1.594240 3.628550 1.196520
-0.327436 4.472190 1.440980
-2.200250 11.503400 -0.650066
3.649820 9.040730 2.311810
0.425038 2.177120 0.992170
-0.804529 6.269480 1.557710
4.663940 9.952200 2.400800
-0.027507 5.603570 1.679820
0.431571 2.210580 0.989276
0.081777 5.260430 1.460390
-2.239840 12.642300 0.148255
4.090820 9.748040 2.351550
-0.104720 5.646440 1.526170
-0.313738 1.340590 0.304113
-2.851970 11.153200 -0.935944
3.480170 9.751560 2.493570
1.185600 2.995440 1.316080
-1.536620 6.369840 1.490740
1.355840 4.689730 1.475850
1.457210 3.109490 1.266190
-5.063380 13.759600 3.022870
-0.680058 4.782080 1.540830
-1.217190 5.365590 1.489590
0.251502 2.405500 -0.234935
-4.469620 13.871800 3.146830
-2.852980 11.826700 2.345760
-2.276470 12.849000 0.150680
0.511700 2.287460 -0.350158
1.929790 4.780150 1.504310
-3.349470 11.173200 0.359673
0.402082 3.397180 1.383340
4.014020 9.210990 2.355340
0.276325 6.449960 1.509480
-0.277221 7.105140 1.308840
0.178382 1.964840 0.879302
-1.294230 6.299750 1.610910
3.967430 9.827450 2.370700
2.639840 10.454100 2.371520
0.722040 4.941860 1.518250
-1.416290 5.239930 1.531950
0.055730 3.584950 1.375010
2.425330 7.261690 1.491850
2.511400 7.037040 1.495770
-0.046537 2.509250 -0.227808
-1.360050 7.110660 1.715320
3.351670 9.812110 2.296330
-2.119190 7.840470 1.610750
3.587080 9.062830 2.449580
-0.967215 3.892850 1.342790
-3.586330 12.584700 -0.797275
3.025310 9.953560 2.545230
-3.484950 8.235000 1.633380
-0.276272 5.244220 1.494470
-2.994240 8.492270 1.624310
-0.205931 6.397240 1.729100
3.695140 9.335840 2.252110
0.112188 2.618700 1.193410
-3.017030 12.891600 -0.728513
1.630080 4.880640 1.535930
-3.365940 11.228200 0.438089
-2.222310 12.543300 -0.537372
-4.352280 12.902300 2.742460
-3.836300 8.417990 1.610100
-2.287530 11.134700 -0.249037
-0.343053 0.795486 0.080101
-2.359350 11.484300 0.369687
-3.444430 11.211500 -0.174290
-0.293002 3.659140 1.403470
-0.200968 4.383460 1.445450
4.330750 10.125700 2.297030
-0.352463 4.814010 1.551110
1.181700 5.282560 1.583590
-1.374880 6.468290 1.748310
1.420140 5.317440 1.594040
3.010950 9.441670 2.414330
1.523510 4.892380 1.503050
0.604994 2.793780 1.250270
-2.520360 14.225600 -0.609443
-3.634080 12.752300 -0.024343
-0.725008 2.479830 1.130130
2.169710 6.967460 1.731130
1.121370 5.542630 1.498110
-1.278860 6.016540 1.494870
-0.212271 0.935731 0.426437
-3.597340 11.164600 0.054805
3.416790 9.573960 2.378740
-0.273006 5.954720 1.740930
3.421880 9.588240 2.313000
0.816722 2.898910 1.273660
-2.135650 11.165700 0.207082
-2.947820 11.864400 1.604790
4.650860 9.924300 2.537750
-0.745405 6.510760 1.617660
-0.966365 4.259920 1.308740
1.180550 4.544410 1.567540
-0.884907 2.404700 -0.301253
0.189537 2.699920 -0.356949
-3.364450 8.262360 1.580330
-3.117460 11.533800 -0.730698
3.141720 10.595700 2.403630
0.810988 2.543080 1.158950
-0.966976 6.799640 1.591320
-0.733990 6.822330 1.744540
2.698070 9.576630 2.379400
-1.816200 5.041240 1.325780
-1.570480 6.923000 1.520930
0.753082 2.065570 0.603893
5.476730 12.567500 2.581880
-0.505289 3.235950 1.343480
-0.507939 5.044350 1.474770
-0.151867 3.892320 1.402280
5.518980 12.903900 2.468120
3.712400 10.402300 2.434450
-0.408545 6.156020 1.663900
0.847572 6.091040 1.735800
-4.279240 13.928800 3.159760
-2.286150 12.903600 -0.376631
-0.911517 6.409670 1.685650
3.323590 11.796900 2.507500
-2.318110 11.283600 0.132322
-2.766130 8.789750 1.805780
-2.219440 11.603700 0.373532
-3.082190 7.874950 1.617840
-1.693620 4.415630 1.356580
0.652252 5.510850 1.652020
-3.402170 12.587200 -0.539251
-2.849910 8.082910 1.660560
1.296070 4.852870 1.527200
0.720914 2.431330 -0.474668
-0.909824 4.010680 1.322520
3.327990 11.812500 2.426770
3.644230 9.026870 2.373940
-3.427880 11.434800 -0.881113
3.264030 10.235300 2.543050
-2.148680 12.628400 0.061990
-1.946880 4.350380 1.336540
-2.519590 14.221300 -0.706421
-2.122940 9.358340 -0.273151
2.849620 10.385300 2.430470
-2.242350 7.868570 1.616530
-2.216360 4.952550 1.302450
4.163490 9.734680 2.278210
-1.213340 4.489060 1.412700
-0.727108 7.220920 1.638070
0.053289 0.759087 -0.355734
-0.602701 4.455840 1.402250
2.420590 6.931500 1.672110
-0.768925 1.888310 -0.068004
-0.752044 5.288270 1.507030
-3.430490 8.944020 1.647590
1.244900 3.813700 1.433000
-3.435220 11.181500 -0.250084
-3.130630 11.276800 -0.791638
1.490360 4.462300 1.539220
-1.763760 6.525480 1.527160
-0.594220 5.901210 1.509000
-2.838200 12.919000 2.017280
0.290892 2.457730 -0.273915
-1.364930 3.225340 1.161990
-3.757510 9.410810 1.403830
-0.215641 6.698860 1.761710
-0.833009 1.895960 0.712409
-2.115230 12.431800 -0.702527
0.361273 4.688470 1.546030
-3.699870 11.220200 0.361185
-2.403480 8.220930 1.688920
4.502250 9.607190 2.317570
-1.067570 4.296760 1.320060
-1.015560 2.228440 -0.232990
0.278188 6.493440 1.707690
-0.331765 1.462480 -0.032710
-3.317100 12.613200 -0.454239
-3.622730 14.167300 2.910550
-5.548860 13.626800 2.414270
0.760529 2.086000 0.518285
-10.608600 23.705500 2.877870
